0.8798358349528488 0.9889864806099864 0.9707635780179864 168 213 178 
0.21826479621821693 0.9416700840728902 0.7740488866348332 225 164 199 
0.5624403340218196 0.3221460174199966 0.3791991582402199 41 53 165 
0.9695043571300197 0.319822373614687 0.20509791412961031 240 140 159 
0.580576645955514 0.285653300112531 0.6715470307635187 87 159 67 
0.9802235001654875 0.34876976488515443 0.18816786214903192 162 108 238 
0.26435785355105135 0.6426890628161841 0.10451131292108462 198 92 69 
0.05278520398677777 0.6446242243899043 0.07534230890894356 8 49 33 
0.6093654751180426 0.7080849649727319 0.4426478166392298 30 161 253 
0.9589703505822602 0.02366549824606312 0.326682616187727 246 149 141 
0.36620193692485214 0.0655266598491957 0.5445017527477731 1 223 32 
0.7877218630961471 0.5485069660957858 0.8634574374264186 137 213 221 
0.4653767519254153 0.5693805476726823 0.9182627489641402 24 71 20 
0.03656631186264958 0.3406896861959543 0.5565752758138403 109 181 252 
0.13433475386244864 0.5980924771607175 0.7530598283174172 144 245 213 
0.8953424864955408 0.8032390641205758 0.5385613317120739 9 70 147 
0.13763335969909596 0.23402430035454014 0.9922315602270757 251 192 248 
0.7070980014752393 0.3965059938936979 0.4801354600272498 61 113 133 
0.5923615003170044 0.023670575606190125 0.4833392932634113 7 127 56 
0.720054003373791 0.9904457302942815 0.7212205709951849 148 234 201 
0.16591674584608818 0.3063712403692558 0.29354335233052975 221 102 2 
0.8372042767620083 0.7252093373879756 0.37899622058385907 159 84 212 
0.6145057072010671 0.03458605258367675 0.7353970130206409 80 180 155 
0.5659810664412492 0.4665996821931444 0.8298791393321445 184 66 202 
0.23574498805278932 0.09319271921407313 0.11367179320346787 42 47 159 
0.45761809230381467 0.6057277562321512 0.5127461623473801 150 78 237 
0.8857436109457484 0.6823066227518999 0.9452381995199048 229 122 234 
0.367535873387292 0.6509972119838441 0.39967784347218127 162 177 136 
0.3778164696318551 0.9219772963371071 0.3021813912189295 170 227 234 
0.7726787802007626 0.9365724082584084 0.6256953878481477 12 243 141 
0.5305337093899885 0.06787969314589981 0.884819682111792 171 5 25 
0.7004266506671437 0.9377322405210491 0.22546132910161987 16 76 216 
0.3199287286651735 0.6214849939461331 0.9694444199743615 161 16 118 
0.5944006868454417 0.244792617400871 0.2166651188589035 24 143 117 
0.8729778187348418 0.9689317305744098 0.8236255145658333 21 219 199 
0.24815259337766316 0.8981136295330054 0.6867000580154412 199 190 31 
0.5024731429478371 0.871111774706018 0.930461554074512 180 108 123 
0.2336315920307952 0.798345929498965 0.6189468755985343 94 58 218 
0.8811084322242315 0.024950815057490194 0.05362005044221396 147 104 204 
0.8542212903485804 0.0008918421720502945 0.9304399388316242 228 121 16 
0.20694100808257576 0.5869909942380422 0.10692089079174627 40 206 198 
0.11114576609565163 0.6604021811414298 0.445831471788231 8 111 61 
0.17540985075127047 0.6798397893543147 0.35327968697725565 117 220 220 
0.49589064890661017 0.6190538156504617 0.11250729665066217 233 148 241 
0.24265024553111658 0.6745994895053176 0.3131821331428257 103 49 158 
0.9881956230784983 0.3926566308893451 0.8505051117306037 5 215 185 
0.7630607562012628 0.5625722655767758 0.627150697379556 98 205 47 
0.5189333899451951 0.46900723025020774 0.28837444663847567 135 131 26 
0.8895320730486889 0.29357321213253473 0.9393536277035348 7 177 86 
0.723587499204926 0.38667735007851856 0.6511630407705018 35 226 33 
0.2221628810090579 0.23289351311175133 0.18605778968336195 93 101 193 
0.4481036851403042 0.6918534167797321 0.5921181492847338 116 4 250 
0.24963313916642993 0.2947737521527032 0.5248319641270094 219 72 43 
0.9770477432162679 0.5941122469612343 0.031333086379590425 155 0 120 
0.12616052724332727 0.5069866896674637 0.13712464790955425 119 136 211 
0.7591130723154567 0.475460783444559 0.1443781302897733 1 156 67 
0.4815764685829551 0.6214204378603818 0.9480642389971325 192 51 179 
0.7371605537266934 0.6113895610939319 0.3385740794742249 56 29 144 
0.6429058646173245 0.6114168586073883 0.2198860127880533 108 197 155 
0.38776601792740695 0.9525506191055246 0.28754121080602446 210 208 36 
0.2026509114637376 0.6489352066312026 0.13377916120151778 240 92 94 
0.05251737283693414 0.9514605734039803 0.7153311917588485 253 111 163 
0.5050472866260407 0.500107660508653 0.3415372719484362 117 234 22 
0.799550113724711 0.10076113935213371 0.8046159799136519 18 93 253 
0.4652323778123473 0.42541387602602554 0.07429150534414108 228 139 251 
0.9936858650474689 0.038816376457132096 0.500588877564506 154 196 96 
0.4776687361424343 0.26978899625619723 0.9563091286311518 55 129 139 
0.6146143034565772 0.4781280700748891 0.0991427351286509 174 254 73 
0.6381901798396084 0.5617227434925669 0.33223247112177523 64 248 33 
0.29090402223048306 0.9102528623313586 0.9227302863270281 170 205 227 
0.6445232776345564 0.06877092067751489 0.37600859958987365 151 21 130 
0.3129613851956503 0.4503462554903874 0.19904202572578278 192 184 95 
0.3276419874696732 0.04939051786940274 0.9169767679243777 16 73 25 
0.4822190595891829 0.5229220739674949 0.8626119685718898 78 129 123 
0.12395193719227393 0.9230003776018063 0.45237625049366326 21 123 145 
0.6593392027619953 0.2500557600860087 0.48805099288170983 33 133 24 
0.0969141219525198 0.3828053486014722 0.34225621382134164 21 223 132 
0.5478048681485315 0.4885869264779956 0.7613315313588696 168 240 168 
0.4071257446523715 0.7981102473738237 0.21964230622089764 66 59 64 
0.039311801029294324 0.5458215605374765 0.16421417172399688 70 116 117 
0.26924620379437525 0.666766314343153 0.4978887825816556 74 105 1 
0.8103890946288104 0.41978568188314114 0.10499146132516013 3 254 173 
0.9209216037066434 0.29762321500899924 0.3669192597126194 120 77 160 
0.6135252841536687 0.9099198936500033 0.7682711198798342 61 21 52 
0.656935663800349 0.025937360611231197 0.8074135751353353 143 74 170 
0.8974138462375074 0.2978246829675666 0.11881049316770498 214 185 249 
0.2605268068586064 0.40799767473579784 0.977931257424214 47 231 154 
0.7313246524092172 0.004390215791566732 0.3137761876339935 65 244 183 
0.3294318734720567 0.29641866384174675 0.4583095825754444 225 22 214 
0.6661809236351066 0.5879747586580126 0.16795120759682747 209 236 134 
0.6461941614267659 0.8213384702345643 0.037137548445026924 80 220 238 
0.9000529430089768 0.3452615111296016 0.3947788327782005 158 101 228 
0.04354643653288148 0.1906926455109932 0.20966290910982543 207 123 245 
0.6672002598408646 0.6250661840913367 0.39214270511027216 6 34 237 
0.3832650330514902 0.25973002675371615 0.28981925124471664 209 169 33 
0.03750677935220548 0.46972740374560784 0.10745961437450036 98 202 221 
0.04309318578039978 0.2991684733661768 0.06990570888104841 12 181 149 
0.37880226560683505 0.6310807967715659 0.7108716084603337 50 126 161 
0.1915756783771574 0.8257195715653749 0.8235906710195209 105 44 173 
0.8303343668236884 0.1243379235703066 0.34965409142650095 99 193 130 
